ply
format ascii 1.0
element vertex 905
property float x
property float y
property float z
element face 0
property list uchar int vertex_index
end_header
0.6212 0.3388 3.6023
0.874 0.3388 4.0063
0.7897 0.4231 3.7966
0.6212 0.6759 3.3409
0.5369 0.8445 3.112
0.874 0.6759 3.6678
1.1268 0.5074 3.9036
1.0425 0.6759 3.7972
1.1268 0.6759 3.8343
1.5482 0.6759 3.8509
1.801 0.4231 3.6315
1.801 0.5074 3.7205
1.801 0.8445 3.877
1.9695 0.8445 3.8149
2.7279 0.7602 3.4001
2.8122 0.7602 3.4102
2.3909 0.3388 3.543
2.5594 0.5074 3.47
2.3909 0.8445 3.4565
3.4864 0.4231 4.0032
3.2336 0.5074 3.6641
2.9807 0.5916 3.504
2.9807 0.8445 3.3865
3.2336 0.8445 3.3686
0.6212 1.0973 3.0658
0.6212 0.9287 3.1695
0.4527 1.3501 2.7298
0.874 0.9287 3.5136
0.7055 1.1815 3.071
0.7055 1.3501 2.8715
0.7897 1.4343 2.83
0.3684 1.6029 2.3146
0.5369 1.94 1.9983
0.7897 2.1085 2.1953
0.6212 2.6141 1.6818
0.5369 2.6141 1.4603
0.4527 2.1928 1.639
0.3684 2.3613 1.1944
0.5369 2.6984 1.4255
0.874 2.4456 2.2331
0.874 2.9512 2.2813
0.6212 2.7827 1.6423
0.3684 3.0355 0.6918
0.6212 3.2883 1.5051
0.7897 3.1197 2.0376
3.4864 2.0242 2.8649
2.2223 2.1085 3.3101
1.0425 0.9287 3.6991
1.1268 1.0973 3.6251
1.5482 0.9287 3.8286
1.7167 1.1815 3.7257
1.7167 1.2658 3.7071
2.2223 1.1815 3.4916
2.0538 1.1815 3.6183
2.0538 1.4343 3.5928
1.5482 2.0242 3.3668
1.2111 1.7714 3.1225
1.1268 1.7714 2.9607
1.2954 1.6872 3.2933
1.1268 1.8557 2.923
1.0425 1.94 2.7214
1.4639 1.8557 3.405
1.2953 1.8557 3.2359
1.9695 1.5186 3.6617
1.801 2.0242 3.3763
1.7167 1.94 3.4153
2.7279 1.013 3.2867
2.7279 0.9287 3.3303
2.4751 1.1815 3.3056
2.7279 1.2658 3.1746
3.065 1.3501 3.1426
3.1493 1.0973 3.1974
3.065 1.013 3.261
2.9807 0.9287 3.3304
2.8965 1.2658 3.1705
2.9807 1.4343 3.0838
2.4751 1.6872 3.1067
2.4751 1.7714 3.1025
2.3066 1.6029 3.2978
2.7279 1.5186 3.0018
3.4021 1.6872 2.9935
3.1493 1.7714 2.8983
3.1493 1.6029 2.9974
3.4864 1.5186 3.082
3.3178 1.5186 3.0711
3.2336 1.6872 2.9662
3.2336 1.8557 2.8995
2.2223 3.2883 2.8856
1.1268 2.277 2.7509
1.1268 2.3613 2.7102
1.2953 2.6141 2.8617
1.8852 2.6141 3.1681
1.801 2.1928 3.2714
1.801 2.3613 3.2252
2.0538 2.277 3.2736
2.0538 2.3613 3.2363
2.0538 2.6984 3.1088
1.0425 3.0355 2.5699
1.1268 3.0355 2.6674
1.2111 3.3725 2.6414
1.801 2.9512 3.2357
1.8852 2.8669 3.1757
1.6324 2.8669 3.1961
2.0538 2.7827 3.0829
1.6324 3.2883 2.9393
3.4864 2.6141 2.5117
2.3909 2.277 3.1826
2.6437 2.3613 3.0027
2.4751 2.6141 3.0775
2.3066 2.6984 3.0834
2.8122 2.5299 2.8961
2.6437 2.6141 3.0021
2.7279 2.6984 2.9447
2.9807 2.6141 2.824
3.4021 2.277 2.772
3.2336 2.277 2.8217
3.4021 2.1928 2.8163
2.7279 3.2883 2.6128
2.3909 2.8669 3.0003
2.8122 2.7827 2.8848
2.6437 2.7827 2.9769
2.3066 3.1197 2.9054
3.4864 2.9512 2.2599
3.4021 2.9512 2.3762
3.4021 2.7827 2.4954
3.3178 2.8669 2.545
2.8965 3.204 2.6174
2.8965 3.3725 2.4268
3.4864 3.1197 2.1639
3.4021 3.1197 2.2754
0.4527 3.4568 0.877
0.3684 3.7939 0.6641
0.5369 3.9624 0.9162
0.6212 4.2995 0.9788
0.7055 4.131 1.2551
0.5369 4.5523 0.66
0.6212 4.6366 0.8655
0.3684 4.5523 0.1902
0.4527 4.8894 0.4489
0.3684 4.8894 0.2692
0.6212 4.7209 0.8539
0.4527 5.0579 0.5053
0.4527 5.1422 0.5253
0.3684 5.2265 0.4388
0.9583 5.0579 1.5566
0.7055 5.1422 0.9912
0.4527 5.3108 0.538
0.5369 5.5636 0.7102
0.7897 5.395 1.1728
0.6212 5.8164 1.0606
0.5369 5.6478 0.7552
0.3684 5.7321 0.4177
2.2223 3.8782 2.7252
1.1268 3.5411 2.5084
1.5482 3.7939 2.5755
1.3796 3.9624 2.4882
1.8852 3.8782 2.6392
1.7167 3.7096 2.6858
2.0538 3.5411 2.9502
2.2223 3.7939 2.7609
2.0538 3.7096 2.8457
1.9695 3.9624 2.6335
2.138 3.9624 2.7087
1.1268 4.2152 2.1219
1.3796 4.131 2.3825
1.2953 4.5523 2.0526
2.1381 4.2152 2.5641
1.6324 4.2995 2.3253
2.138 4.131 2.6112
1.8852 4.5523 2.359
1.8852 4.3838 2.3809
1.8852 4.4681 2.3649
1.801 4.4681 2.338
2.7279 3.8782 2.0984
2.4751 3.6254 2.5383
2.3066 3.5411 2.7768
2.7279 3.7096 2.1846
2.6437 3.9624 2.17
3.065 3.6254 2.033
3.1493 3.7096 1.9537
2.8965 3.7939 1.9962
3.4864 3.5411 2.0299
3.4021 3.7939 1.9601
2.4751 4.131 2.3842
2.3909 4.0467 2.5061
2.5594 4.2152 2.2631
2.3066 4.3838 2.5284
2.8122 4.4681 2.0231
2.6437 4.5523 2.2421
3.1493 4.0467 1.9366
3.1493 4.131 1.9459
2.9807 4.2995 1.9197
2.8965 4.2995 1.9333
3.3178 4.2152 2.0394
3.2336 4.5523 2.1286
2.138 5.1422 2.4413
1.1268 5.1422 1.745
1.0425 4.9737 1.6911
1.5482 4.9737 2.0615
1.2953 5.2265 1.883
1.6324 4.8894 2.1544
1.8852 4.9737 2.3785
1.9695 4.7209 2.3955
2.138 5.0579 2.4452
1.5482 5.8164 1.9073
1.5482 5.3108 2.1013
1.5482 5.395 2.0973
1.4639 5.3108 2.0351
1.0425 5.6478 1.6612
1.4639 5.7321 1.9399
1.3796 5.9006 1.8391
1.2953 5.9006 1.8145
1.8852 5.5636 2.1316
1.6324 5.3108 2.1659
2.0538 5.5636 2.1688
1.801 5.6478 2.0655
1.7167 5.9006 1.8932
2.138 5.9006 2.0451
2.8122 4.8894 2.3708
2.3909 4.8894 2.4991
2.3066 5.1422 2.467
2.7279 4.9737 2.4695
3.1493 5.2265 2.8141
2.8965 5.0579 2.5563
3.4864 4.8051 2.5136
2.4751 5.5636 2.5331
2.3909 5.8164 2.3339
2.7279 5.7321 2.7401
2.5594 5.8164 2.5438
3.2336 5.3108 2.9161
3.065 5.6478 2.9068
3.3178 5.6478 2.9088
0.5369 5.9849 1.0573
0.6212 6.2377 1.3343
0.3684 6.2377 1.1983
0.4527 6.2377 1.1999
0.7055 6.0692 1.3622
0.874 6.7433 1.4744
0.7055 6.7433 1.3766
0.7897 6.7433 1.4296
0.6212 7.1647 1.1167
0.3684 6.9961 0.9727
0.7897 7.0804 1.3243
0.6212 7.3332 1.0698
0.3684 7.249 0.8394
0.3684 7.7546 1.0486
0.7055 7.3332 1.1689
0.7055 7.5018 1.1112
0.5369 7.8388 0.9526
0.4527 7.8388 0.9632
0.4527 7.9231 0.9373
1.5482 6.0692 1.8161
1.4639 6.1535 1.7956
1.2111 6.322 1.6873
1.1268 6.322 1.655
1.2953 6.4063 1.698
1.801 6.4905 1.7229
2.2223 5.9849 2.0817
2.2223 6.2377 1.9951
2.138 6.2377 1.9015
1.9695 6.322 1.7643
2.138 6.322 1.8887
1.5482 7.1647 1.5988
1.2111 6.8276 1.5476
1.4639 6.5748 1.6848
1.1268 6.9119 1.5281
1.5482 6.9961 1.6083
1.801 6.5748 1.7307
1.6324 6.5748 1.7145
1.9695 6.5748 1.7916
2.138 6.6591 1.9383
1.801 6.9119 1.7759
1.6324 6.9119 1.673
1.6324 7.1647 1.66
3.4864 6.4063 1.9581
2.8122 6.1534 2.6344
2.4751 5.9849 2.3793
2.4751 6.4063 2.3035
2.4751 6.4905 2.2846
2.5594 6.4063 2.3845
3.1493 6.4063 2.3583
3.1493 5.9849 2.5606
2.8965 6.4063 2.5425
3.2336 6.0692 2.4207
3.4021 6.322 2.0985
3.4021 6.4905 2.0022
2.8122 7.1647 1.984
2.6437 6.5748 2.3677
2.3066 7.0804 1.8757
2.7279 6.9961 2.0874
2.9807 6.8276 2.2313
3.2336 6.6591 2.1534
3.4021 6.8276 1.8444
3.065 6.9119 2.1081
2.8965 7.0804 2.0506
3.2336 6.9119 1.9667
1.2953 7.249 1.5057
1.5482 7.249 1.5999
1.4639 7.249 1.55
1.801 7.3332 1.7285
1.6324 7.249 1.6573
2.2223 7.586 1.8289
1.2953 7.8388 1.624
1.2953 7.9231 1.6669
1.4639 7.9231 1.7673
1.4639 8.1759 1.823
2.2223 8.0074 1.9758
1.8852 7.9231 1.8891
1.7167 7.9231 1.8208
2.0538 8.0074 1.9731
3.4864 7.7546 1.0503
2.8122 7.7546 1.5158
2.3909 7.249 1.8509
2.4751 7.6703 1.7775
2.8122 7.5018 1.6811
3.1493 7.6703 1.3417
3.1493 7.7546 1.2777
3.1493 7.586 1.4076
2.9807 7.586 1.5362
3.4021 7.249 1.4999
3.4021 7.5018 1.2713
2.3909 7.8388 1.8587
2.7279 7.8388 1.5422
2.5594 8.0074 1.6832
2.3066 8.1759 2.0129
2.9807 7.9231 1.2972
2.9807 8.0074 1.257
3.2336 7.8388 1.1539
3.4021 7.9231 0.9844
6.0145 0.8445 3.9152
4.6661 0.7602 4.0248
3.5706 0.3388 4.1821
3.6549 0.3388 4.3019
4.4133 0.3388 4.5416
4.1605 0.4231 4.5435
4.3291 0.8445 4.0993
4.4976 0.7602 4.1289
5.3403 0.5074 4.3884
5.256 0.3388 4.5275
5.0875 0.5074 4.3386
4.9189 0.8445 3.8983
5.256 0.6759 4.2278
5.0875 0.7602 4.0367
5.6774 0.3388 4.6142
5.4246 0.5074 4.3843
5.9302 0.3388 4.435
5.8459 0.8445 3.9864
6.2673 0.4231 4.3521
6.0987 0.3388 4.4067
6.2673 0.5917 4.1897
6.0987 0.6759 4.0854
6.0987 0.7602 3.9903
6.0987 0.8445 3.8954
7.1942 0.4231 4.2632
6.7729 0.3388 4.2864
6.9414 0.6759 4.0885
6.6886 0.6759 4.0184
7.5313 0.5074 4.3756
7.447 0.4231 4.3663
7.447 0.3388 4.4196
7.447 0.5916 4.3022
7.3628 0.8445 4.0243
7.6998 0.8445 4.0971
8.5425 0.3388 3.2583
8.4583 0.5074 3.3044
8.374 0.7602 3.2832
8.374 0.8445 3.2213
8.4583 0.8445 3.1814
4.7504 2.0242 1.9874
4.0762 1.4343 3.2157
3.7392 1.013 3.5234
3.5706 1.4343 3.124
4.2448 1.013 3.8483
4.4133 1.1815 3.6078
4.2448 1.2658 3.425
4.1605 1.2658 3.4479
4.6661 1.013 3.8481
4.6661 1.0973 3.7379
4.5819 1.3501 3.2593
3.992 2.0242 2.4791
4.0762 1.5186 3.0836
3.7392 1.94 2.8344
3.8234 1.8557 2.8477
4.5819 1.6872 2.5367
4.4976 1.7714 2.4026
4.4133 1.94 2.1406
4.5819 1.8557 2.2373
4.5819 2.0242 1.9742
5.0032 1.013 3.7478
5.1718 1.0973 3.7523
5.0875 1.0973 3.6908
5.0032 1.3501 3.2552
5.0032 1.2658 3.3934
4.8347 1.3501 3.2198
5.1718 1.3501 3.3971
5.6774 1.3501 3.6092
5.5931 1.0973 3.9265
6.0145 1.0973 3.6828
5.7616 1.1815 3.7869
4.9189 1.6029 2.7656
4.8347 2.1085 1.8883
5.1718 2.1085 2.0137
5.5931 1.5186 3.3935
5.7616 1.5186 3.388
5.8459 1.6872 3.1771
5.6774 1.94 2.5774
6.0145 1.8557 2.9719
5.7616 1.8557 2.8381
5.9302 2.1085 2.5043
3.9077 2.277 2.3135
3.8234 2.6141 2.1875
4.4133 2.3613 1.6804
4.1605 2.277 1.983
4.1605 2.4456 1.8782
4.7504 2.277 1.6608
4.0762 3.2883 1.6791
3.6549 2.7827 2.2275
3.5706 2.8669 2.2352
3.6549 3.2883 1.9445
3.5706 3.204 2.0389
3.8234 3.1197 1.8706
3.9077 3.204 1.8007
4.6661 2.9512 1.2844
4.3291 2.7827 1.5494
4.1605 2.8669 1.6886
4.5819 2.7827 1.3515
4.6661 3.0355 1.2937
4.3291 3.1197 1.5127
4.1605 3.2883 1.6179
4.4976 3.2883 1.4525
4.5819 3.3725 1.4545
5.3403 2.277 1.8705
5.256 2.277 1.8223
4.8347 2.1928 1.7779
5.256 2.5299 1.5267
5.1718 2.6984 1.3389
5.6774 2.3613 2.0105
5.9302 2.277 2.2462
6.0145 2.1928 2.4605
5.9302 2.3613 2.1721
5.8459 2.4456 2.0792
5.9302 2.5299 2.1006
5.3403 2.9512 1.3061
5.3403 3.0355 1.2939
5.0875 2.7827 1.2585
5.256 3.0355 1.2585
5.0875 3.2883 1.2998
5.0875 3.3725 1.3451
5.6774 2.8669 1.5705
5.5088 2.8669 1.4415
5.8459 3.1197 1.5635
6.2673 0.9287 3.761
6.0987 1.013 3.7103
6.6043 0.9287 3.7349
6.9414 1.3501 3.2903
6.9414 1.0973 3.5463
6.8571 1.0973 3.5311
6.9414 1.2658 3.371
6.7729 1.1815 3.4308
7.0257 1.013 3.6624
6.3515 1.7714 3.0045
6.0987 2.1085 2.6801
6.6043 1.94 2.9454
6.8571 1.5186 3.1514
6.6886 1.6029 3.0818
7.11 1.6029 3.1974
7.11 1.6872 3.1738
6.9414 2.1085 2.7931
6.7729 1.8557 3.0602
8.4583 1.3501 3.2349
7.447 1.013 3.7975
7.447 1.0973 3.679
7.5313 1.2658 3.5368
7.6998 1.4343 3.4611
8.1212 1.3501 3.4519
8.1212 1.4343 3.4021
8.2897 1.013 3.2678
8.2897 1.3501 3.3525
7.447 1.6872 3.1488
7.447 1.5186 3.2709
7.3628 1.7714 3.1184
7.6156 1.6029 3.2108
8.5425 1.7714 3.0435
8.1212 1.6029 3.2575
8.0369 1.6872 3.1826
7.9527 1.7714 3.0486
8.374 1.7714 2.9968
8.2055 1.94 2.812
8.2897 1.8557 2.9053
6.183 2.277 2.5233
6.2673 2.1928 2.6994
6.3515 2.277 2.6391
6.5201 2.3613 2.5537
6.6043 2.5299 2.3293
6.4358 2.6984 2.008
6.9414 2.6984 2.2748
6.7729 2.277 2.6094
6.7729 2.3613 2.5286
6.9414 2.4456 2.4646
7.2785 2.5299 2.3973
6.3515 3.0355 1.8395
6.6043 3.1197 1.5566
6.8571 2.9512 1.7793
6.9414 2.8669 2.0259
6.7729 3.0355 1.5693
6.6886 3.1197 1.4878
7.1942 3.204 1.5006
7.0257 3.2883 1.2021
8.5425 2.6141 2.5878
7.5313 2.3613 2.5464
7.6998 2.1928 2.6575
7.5313 2.4456 2.4523
7.447 2.5299 2.3615
7.9527 2.277 2.5734
8.0369 2.3613 2.5747
7.9527 2.6984 2.3321
8.2897 2.3613 2.5707
8.4583 2.4456 2.5948
8.2897 2.5299 2.5989
8.374 2.6141 2.5886
8.4583 2.6984 2.5699
7.3628 3.0355 1.9256
7.6156 2.9512 2.0137
7.6156 3.0355 1.9255
7.447 3.2883 1.5697
7.5313 3.204 1.7186
7.3628 3.1197 1.8069
7.7841 3.204 1.7681
8.5425 3.0355 2.5265
8.2897 2.7827 2.4674
8.4583 2.8669 2.5272
8.4583 3.0355 2.4512
8.1212 3.3726 1.7965
8.5425 3.1197 2.461
8.374 3.2883 2.1104
9.1324 0.3388 3.0903
8.6268 0.5917 3.1824
8.9639 0.8445 2.8399
9.2167 0.4231 2.9842
9.301 0.4231 2.9519
9.3852 0.5074 2.8462
9.5538 0.4231 2.834
9.4695 0.7602 2.6619
10.0594 0.5074 2.5701
10.0594 0.3388 2.5743
9.9751 0.7602 2.4605
9.8066 1.4343 2.4923
8.7954 0.9287 2.939
8.7954 1.4343 2.9612
8.7954 1.1815 2.9101
8.7111 1.4343 3.0241
8.8796 1.2658 2.8674
9.301 1.0973 2.6779
9.2167 1.0973 2.6869
9.301 1.2658 2.6993
9.301 1.4343 2.7547
9.7223 1.1815 2.514
8.7954 1.7714 3.0898
8.6268 1.5186 3.1355
9.1324 1.6029 2.9028
8.8796 1.6029 2.9765
8.8796 1.6872 3.0203
8.7111 1.94 2.9312
8.9639 2.0242 3.0331
9.3852 1.6872 2.8056
9.4695 1.8557 2.8213
9.9751 1.013 2.3461
9.8909 1.013 2.41
10.0594 1.7714 2.3192
9.8909 1.5186 2.4336
9.8909 2.0242 2.6961
8.7954 2.3613 2.6966
8.6268 2.277 2.6286
8.6268 2.5299 2.6118
9.4695 2.277 3.1477
9.301 2.5299 3.1257
9.2167 2.5299 3.0253
9.8066 2.3613 3.0955
9.7223 2.3613 3.1506
9.1324 2.9512 2.9193
8.6268 2.8669 2.577
9.0482 2.8669 2.8063
8.6268 3.3725 2.2858
8.7111 3.3725 2.3928
9.0482 3.1197 2.8828
9.8066 3.0355 3.4144
9.7223 2.9512 3.3758
9.7223 2.8669 3.393
9.4695 3.3725 3.3228
9.301 3.3725 3.1198
9.8066 3.204 3.428
9.7223 3.204 3.4003
9.5538 3.2883 3.3781
10.0594 2.277 2.8965
9.9751 2.1928 2.8328
9.8909 2.8669 3.4469
9.9751 3.2883 3.477
4.0762 3.5411 1.7223
3.8234 3.5411 1.8145
3.7392 3.7096 1.8959
3.7392 3.7939 1.9243
3.9077 3.7096 1.8253
4.3291 3.4568 1.5624
4.2448 3.7096 1.7438
4.1605 3.8782 1.8656
4.6661 3.7939 1.6287
4.0762 4.5523 2.0512
3.992 4.0467 1.9874
3.7392 4.5523 2.3354
3.6549 4.3838 2.2392
4.0762 4.4681 2.0657
4.7504 4.2152 1.5961
4.7504 4.2995 1.5393
4.4133 4.2995 1.83
4.4133 4.0467 1.8402
4.3291 4.5523 1.7656
4.1605 4.3838 2.0118
4.1605 4.5523 1.9593
4.8347 3.4568 1.429
5.3403 3.7939 1.5181
5.256 3.9624 1.4963
5.4246 3.5411 1.4497
5.6774 3.7096 1.4766
5.5931 3.9624 1.2802
5.9302 3.7939 1.2723
5.7616 3.9624 1.1668
5.3403 4.2152 1.0952
4.8347 4.0467 1.6029
5.0875 4.2995 1.1818
4.8347 4.4681 1.2347
4.8347 4.6366 1.0305
5.1718 4.3838 0.9789
5.1718 4.6366 0.6736
5.9302 4.2152 0.6974
5.4246 4.131 1.1597
5.9302 4.2995 0.5902
5.5931 4.5523 0.4688
5.8459 4.5523 0.3724
3.992 5.1422 1.9629
3.7392 4.8894 2.4824
3.7392 4.7209 2.4255
3.5706 5.2265 2.7513
3.8234 4.9737 2.3629
3.9077 5.2265 2.1225
4.5819 5.0579 0.9812
4.5819 5.2265 0.9377
3.6549 5.4793 2.6082
3.5706 5.395 2.7692
3.992 5.395 1.8717
3.5706 5.7321 2.6517
3.9077 5.8164 1.8859
4.7504 5.4793 0.7801
4.4133 5.3108 1.1198
4.4133 5.6478 1.1502
4.7504 5.7321 0.813
4.4976 5.6478 1.0528
4.5819 5.8164 0.9314
4.5819 5.9006 0.8983
5.0032 4.9737 0.5993
5.0032 5.0579 0.5679
4.8347 5.1422 0.6866
5.256 5.0579 0.3969
5.6774 5.1422 0.2283
5.9302 4.7209 0.2619
6.0145 5.0579 0.1779
5.7616 5.2265 0.2157
5.256 5.3108 0.3713
5.0875 5.3108 0.4725
5.256 5.6478 0.4367
5.5088 5.395 0.2816
5.9302 5.5636 0.2795
6.5201 3.8782 0.9584
6.183 3.5411 1.4494
6.4358 3.6254 1.243
6.6043 3.7939 0.9548
6.3515 3.7096 1.21
6.9414 3.9624 0.66
6.7729 3.4568 1.1308
6.6886 3.6254 1.0159
7.11 3.5411 0.9436
7.2785 3.7096 0.8062
7.1942 3.9624 0.6215
6.2673 4.2995 0.5095
6.183 4.2152 0.6098
6.6043 4.131 0.7196
6.3515 4.0467 0.8068
6.5201 4.3838 0.4761
6.3515 4.4681 0.3728
6.7729 4.131 0.6769
6.7729 4.2995 0.5861
7.0257 4.131 0.5388
7.1942 4.3838 0.4354
7.11 4.6366 0.4395
7.8684 3.6254 1.3566
7.5313 3.4568 1.36
7.6998 3.5411 1.3564
7.6156 3.5411 1.297
7.5313 3.7939 0.8351
7.6998 3.7939 0.9898
7.6998 3.8782 0.8785
8.0369 3.8782 1.2135
8.5425 3.4568 2.1177
8.4583 3.4568 2.0363
8.5425 3.7939 1.774
7.8684 4.5523 0.7012
7.6998 4.131 0.6626
7.7841 4.131 0.7215
7.447 4.3838 0.4202
7.8684 4.4681 0.6996
8.5425 4.2152 1.5685
8.0369 4.0467 1.0331
8.1212 4.131 1.0471
8.4583 4.0467 1.5278
8.374 4.131 1.3465
8.374 4.2152 1.2923
8.4583 4.3838 1.3314
6.6043 5.1422 0.1577
6.2673 4.7209 0.2319
7.2785 4.7209 0.4483
7.11 5.1422 0.2835
6.2673 5.3108 0.1865
6.4358 5.4793 0.2302
6.4358 5.6478 0.303
7.0257 5.4793 0.2526
7.8684 4.8051 0.6698
7.5313 4.8894 0.5169
7.5313 4.9737 0.5173
7.447 5.2265 0.4571
7.6998 4.9737 0.5894
8.0369 5.0579 0.7597
8.1212 5.0579 0.8057
7.8684 5.4793 0.7524
7.5313 5.5636 0.4769
7.3628 5.395 0.3862
8.0369 5.5636 0.8592
8.2055 5.8164 0.8914
8.0369 5.7321 0.8209
8.5425 5.7321 1.0499
8.4583 5.7321 1.0236
4.7504 6.4063 0.5794
3.6549 6.322 1.8375
3.992 6.322 1.3136
4.4133 6.4905 0.6812
4.3291 6.4063 0.7999
4.1605 6.0692 1.2155
4.2448 6.322 0.9437
4.1605 6.4905 0.9694
4.6661 5.9849 0.8068
4.4976 6.4905 0.6171
4.0762 7.0804 1.0578
3.7392 6.7433 1.439
3.5706 6.6591 1.6996
3.8234 6.6591 1.3739
3.8234 6.7433 1.3437
3.9077 6.8276 1.225
3.6549 7.1647 1.385
4.0762 6.9961 1.047
4.4133 6.7433 0.6623
4.2448 6.8276 0.8383
4.5819 6.6591 0.5439
4.4976 6.7433 0.6014
4.3291 6.9119 0.7907
4.3291 7.1647 0.8787
5.1718 6.0692 0.5965
5.0875 5.9849 0.6166
5.0875 6.2377 0.6241
5.9302 6.322 0.5433
4.0762 7.4175 1.0496
3.6549 7.6703 1.0476
3.9077 7.5018 1.0916
3.992 7.7546 0.9067
4.3291 7.6703 0.8627
4.2448 7.586 0.9276
4.6661 7.249 0.7173
4.4976 7.7546 0.7734
3.8234 7.8388 0.8646
3.8234 7.9231 0.8039
3.8234 8.0074 0.7549
3.9077 8.0917 0.6853
4.6661 8.0074 0.6866
4.3291 7.8388 0.779
4.7504 7.9231 0.7107
4.6661 7.8388 0.7219
4.8347 7.4175 0.6782
5.1718 7.249 0.6366
5.0875 7.249 0.6351
5.4246 7.6703 0.6412
5.5088 7.7546 0.6422
4.9189 8.0074 0.7231
5.0032 8.1759 0.8042
5.256 8.1759 0.6949
5.6774 7.8388 0.6381
5.6774 7.9231 0.6447
5.5088 8.0074 0.6511
5.4246 8.1759 0.6704
6.0145 8.1759 0.643
6.4358 6.0692 0.4847
6.3515 6.1534 0.506
6.9414 6.322 0.4438
6.8571 6.4905 0.4514
6.8782 6.7539 0.4103
6.7729 6.5748 0.4552
8.374 6.0692 0.8596
8.5425 5.9849 0.9478
8.4583 5.9849 0.9255
7.7841 6.6591 0.4047
8.1212 6.6591 0.5392
8.2897 6.8276 0.6657
6.5201 7.3332 0.4782
6.4358 7.249 0.5101
6.7729 7.4175 0.4076
6.6886 7.3332 0.4265
6.2673 7.8388 0.5178
6.3515 7.9231 0.4807
7.2785 8.0917 0.2753
7.2785 8.1759 0.2542
8.2055 7.586 0.6363
7.7982 7.8388 0.3403
8.0369 8.0074 0.329
8.4583 8.0917 0.507
8.374 8.1759 0.4894
8.9639 3.6254 2.4636
8.8796 3.4568 2.5312
8.7953 3.7939 2.0651
9.1324 3.7939 2.5017
8.9639 3.8782 2.2145
9.301 3.6254 2.996
9.2167 3.7096 2.7468
9.7223 3.7096 3.5367
9.5538 3.8782 3.0856
8.6268 4.0467 1.7392
8.7111 4.131 1.8217
8.9639 4.2152 2.014
9.0482 4.2995 2.0265
8.6268 4.3838 1.5956
8.6268 4.5523 1.4575
9.1324 4.4681 1.9528
9.0482 4.4681 1.9089
9.301 4.0467 2.415
9.301 4.2995 2.2094
9.7223 4.131 2.8013
9.2167 4.3838 2.0833
9.9751 3.6254 3.6686
10.0594 3.7939 3.8602
9.9751 3.7096 3.7587
10.0594 4.2152 3.3316
10.0594 4.5523 2.31
9.8909 4.3838 2.4723
9.0482 5.2265 1.4484
9.4695 5.1422 1.6334
9.301 4.8051 1.7569
9.4695 4.7209 1.8788
9.2167 5.2265 1.5146
9.8066 4.8051 1.9668
9.6381 4.8051 1.902
9.8066 4.9737 1.8795
9.1324 5.8164 1.1462
8.7954 5.395 1.3733
8.9639 5.3108 1.402
8.9639 5.395 1.3895
8.7954 5.9006 1.0374
8.7111 5.9006 1.0174
9.0482 5.7321 1.2067
8.9639 5.8164 1.1326
8.8796 5.9006 1.0581
9.8066 5.4793 1.3751
9.7223 5.395 1.4275
9.5538 5.4793 1.294
9.4695 5.6478 1.1489
9.301 5.8164 1.1094
9.2167 5.9006 1.1012
9.8066 5.7321 1.1861
10.0594 4.8051 1.9655
10.0594 5.5636 1.3708
9.9751 5.8164 1.1829
9.8066 6.4905 1.0255
8.6268 6.1534 0.9122
8.7111 6.322 0.8954
9.4695 6.0692 1.0665
9.3852 6.322 0.974
9.2167 6.4905 0.9135
9.6381 5.9849 1.0843
9.6381 6.4063 1.0132
9.0482 7.0804 1.0231
8.7954 6.7433 0.9148
9.8066 6.8276 0.8998
9.7223 6.7433 0.9376
9.301 6.7433 0.9357
9.301 6.8276 0.9469
9.5538 6.8276 0.9292
9.4695 6.9119 0.9292
9.9751 6.2377 1.1209
10.0594 6.6591 1.0391
10.0594 7.0804 0.6787
9.9751 7.1647 0.7485
9.0482 7.249 1.0479
9.7223 7.4175 0.7797
9.0482 8.1759 0.6917
9.4695 8.0074 0.7866
9.7223 8.0917 0.6313
10.0594 7.3332 0.7034
9.9751 8.0917 0.5936
-188.606 -5.43365 0
199.034 -5.43365 0
5.2139 198.077 0
